# 3D point list with one line of data per point:
#   POINT3D_ID, X, Y, Z, R, G, B, ERROR, TRACK[] as (IMAGE_ID, POINT2D_IDX)
# Number of points: 352, mean track length: 4.9422245032627021
1756 -0.23735603549340611 0.74870717672882114 2.6889712214188832 54 104 54 0.099864154437712793 96 438 74 450 35 445 77 328 13 410 51 299
1758 -0.25865034827007177 0.81127229840914161 2.6744407260113956 138 135 84 0.15879412611792307 8 446 74 484 77 307
1759 -1.071391518873918 0.85732564150283386 2.5762096501769007 103 157 75 0.1904508658596934 96 520 74 486
1760 -0.49287010635589723 0.83889169038692024 2.6062315239210649 72 106 58 0.21074055717746679 96 481 74 488 17 432 13 357
1761 -0.6280637539129752 0.86691736281202469 2.5814974342074373 77 117 60 0.079003645548652274 62 398 74 498 35 490
1762 0.051382063162414192 0.96166917358338733 2.2147289228188178 65 117 62 0.40161885407902131 17 474 74 508 96 500 13 546 100 381 35 438 98 480 55 579 62 589 84 397
1763 -0.32920234297639073 0.8711116803058695 2.6437541942487175 128 123 77 0.23039874836261717 62 996 74 512 35 492 76 438 51 611
1764 -1.1371323079261089 0.90313440515239607 2.5860445143889468 103 169 81 0.06719476075745931 96 556 74 516
1765 -0.88938910716957542 0.90636338858816812 2.5660111643555723 93 139 71 0.094583762157871301 17 462 74 520 61 610
1766 -1.0786079836619569 0.94331327472130011 2.5718690511474422 243 224 134 0.10022021046463776 17 478 74 542 35 550 13 240 8 406
1767 -0.29827801117763036 0.91263389849512 2.650226577385236 51 86 42 0.14726292685806797 17 461 74 546 34 504 62 489 35 524 59 478 98 334 31 294 84 395 13 946
1768 -1.0663041112043894 0.95073232697669474 2.5731718501091807 122 175 88 0.087815930291749777 17 484 74 547 35 555 96 577 100 531 37 581
1769 -1.0550188329864629 0.95968301081627794 2.5729016969128566 236 217 131 0.13307563020089083 96 584 74 551 35 561 84 254 33 462 54 471
1771 -0.75884645382010396 0.99484409259211293 2.5652942139463866 73 120 62 0.12340055973954275 17 512 74 568 35 566 55 191
1772 -0.65901943575772592 1.0209272888966245 2.5714082667482558 79 118 64 0.19543172344376181 52 509 74 580
1773 -1.1175648774897891 0.38943717616404927 5.5055056576271886 99 124 71 1.575117365054737 62 187 74 581
1774 -0.19990499668353295 1.0181214996403898 2.6710192613631705 180 171 98 0.19907151323382136 55 480 74 599 35 578 98 389 96 571 3 153 31 286 30 159 51 272 62 554
1776 -1.116219177887229 1.0650603033097747 2.5991711710354406 102 185 88 0.45380215433296311 8 474 74 603 35 627 34 645 60 609 33 477 20 1047 18 466 95 506
1777 -1.1160972482767608 1.0652566108595531 2.5986709008142199 102 185 88 0.43201280835805006 8 475 74 604 35 628 76 772 37 646 18 467 17 558 95 505
1779 -0.63088437792143381 1.0648149550702222 2.5755829412654188 70 114 62 0.041068792033880003 52 487 74 610
1780 -0.19353196105770187 1.0432865427653968 2.6675386956599598 217 200 119 0.23565401318181373 62 566 74 615
1781 -0.34952704529168477 1.0626726030494913 2.6255035741689774 74 112 60 0.10440968333550782 17 547 62 549 74 618 31 210
1782 -0.21573130761331658 1.0532776885217188 2.6666473452974593 218 197 115 0.15715380539605645 8 564 74 619 37 479 51 250
1783 -0.26524468956583963 1.1005455938846846 2.6533601041480948 212 198 112 0.20186479791063405 62 573 74 639 61 296 39 337 77 273
1784 -0.84340396577599253 1.13865473453611 2.5731232671436683 101 158 79 0.21577696503140617 55 158 96 658 74 644 35 650 50 548 37 607 65 634 78 555
1785 -0.33282978882306063 1.1174177697493852 2.6337454613408107 176 175 106 0.10921438073978386 17 577 74 645
1788 -0.49400031925285304 1.2080426466707432 2.6045827751954196 67 108 57 0.17709059850294806 8 593 74 668
1789 -0.31967384131380006 1.2310892020880668 2.6390058532977645 71 112 61 0.075313343042049938 17 616 96 682 74 677
1790 -0.10497258087884331 1.2414132236787521 2.5962891534413006 107 98 59 0.97156739774266609 17 625 96 675 74 683 34 642 35 675 2 434
1792 -0.24368751556580687 1.235379364883928 2.6905401104617974 48 95 50 0.29989690912917133 8 628 74 686 35 696 13 615 3 74
1793 -0.5145523182642544 1.2623379264807699 2.6026805751942899 224 211 132 0.20314388683643414 8 620 74 688
1794 -0.39819104949863676 1.2791017404453315 2.6255699509365504 222 210 133 0.23808841077394186 62 634 74 696 13 598
1796 -0.23186937393614634 1.3063324103856728 2.7113670839552375 59 99 57 0.5438036387527494 17 646 74 710 34 1287 35 727 76 568 61 299 84 582 46 369 39 402
1797 -0.25343661157407338 1.3184960528233551 2.6979380580173862 221 203 138 0.22285415872473066 96 712 74 713 13 622 84 578 39 763 11 266
1800 -0.50526658185647122 1.3928095001922038 2.6342368761428614 202 207 127 0.2538176597563338 96 748 74 734 98 270 2 508 81 422 39 369 39 370
1801 -0.25650831624234449 0.010990010292531424 1.6728427808260202 164 158 162 0.64054750966274776 96 796 74 801 34 793 35 1424 76 881 59 1401 37 1403 100 797 83 1459 87 816 65 871 78 803 63 731 60 813 84 648 2 643 79 798 26 765 20 772 64 726 56 704 18 681 95 733 81 12 39 491
1802 -0.15954588224165903 0.055075642990341032 1.6417908453632857 136 113 77 0.74019422629326714 17 32 74 805 34 796 35 845 59 835 52 98
1803 0.049187706635969643 0.18010613956216048 1.6090912124788095 98 83 54 0.31215655748871779 96 73 74 816 34 804
1804 -0.3232104110216783 0.068816311795134005 1.8114990831303579 79 145 78 0.2320066862595894 17 721 74 820 34 829
1805 0.10503074097092575 0.20654783928770576 1.6173651024615974 254 253 254 0.27706032157561872 96 828 74 835 13 719 84 666
1807 -0.16664593576434641 0.17410134279616751 1.7887865756365344 72 138 74 0.26366873725717827 96 835 74 846 35 884 84 33
1808 -0.69797331861455691 0.058468764385855868 2.2183170614021521 255 255 184 0.3400420653945867 17 749 74 859 96 845 3 561
1809 -0.59239341954012104 0.040405911815853603 2.2979690396659862 183 184 196 0.28204037173817398 96 840 74 860 35 923 59 953 37 1501 100 916 81 644 75 594
1810 0.10295225844371478 0.29387605116627769 1.8020705064798643 158 170 118 0.21701773239450731 62 807 74 861 39 26 84 690
1811 -0.24519885908056599 0.22616808130157506 1.958555445792588 76 150 85 0.2762715883936992 17 761 96 850 74 865 61 1313 52 1402
1813 -0.10807711734549277 0.32497636041469846 1.9944219667170719 78 151 85 0.16106882263033193 96 181 74 890 17 147 34 903 35 930
1814 0.23732598236905081 0.40166154106353036 1.9214093101193555 177 181 134 0.17560303282047318 96 880 74 902 17 801 34 892 76 899 59 894 37 862 83 81 87 115
1815 0.2339339713740442 0.40993403136800066 1.9482625616026361 180 188 140 0.54652140340093824 17 809 96 886 74 912 34 164 76 102 61 22 13 271 59 156 37 136 83 910 87 127 65 870 84 766
1816 -0.6843817805317528 0.170944231628474 2.7607737098400582 161 143 81 0.36591210286564646 17 789 74 930 35 1034 13 735
1817 -0.67857702898962058 0.20469908020411254 2.7433630740295634 50 86 36 0.15319137059598584 96 908 74 936 34 984 76 1113
1818 -0.96329155349460549 0.45655826577733749 2.1751333602859328 255 253 248 0.28762392824647443 17 848 96 950 74 949 55 22 62 131 35 1029 98 564 31 185
1819 -0.62013960434659365 0.24630694685255461 2.7362266083295208 106 111 55 0.42045324103131793 62 748 74 951 61 1455 13 756 98 672 41 814 93 617
1820 -0.0048590401183500912 0.46485742435834676 2.1999627204614756 77 157 88 0.22226368293965812 96 251 74 955 34 951 35 999 13 267 84 800
1821 0.20590155780218716 0.52919653799226163 2.2247162163479355 113 91 56 0.3324826597615681 96 278 74 971 59 962 37 932 100 939
1822 0.20007717592243454 0.54161473815363892 2.2363583260112572 102 82 52 0.4220836846304053 17 269 74 975 96 287 34 970 35 1027 76 971
1823 -0.48823723745342579 0.45579487744413927 2.6857451888953245 176 158 91 0.11107493448513313 8 848 17 1308 74 1009 98 707 55 799
1826 -0.70538366318808909 0.55809102244414177 2.6294564933246942 74 120 57 0.13597047455611136 96 1021 74 1037 35 1128
1827 0.15281227597688438 0.76002916669092679 2.237977664215324 247 226 134 0.17068094537338827 96 1038 74 1067 34 1043 35 1090 84 915
1828 -1.0354864152323293 0.66601077290314714 2.6031009966212886 97 171 75 0.22243832414511408 8 1273 74 1070 76 1791 52 1709 83 1798 65 1801
1830 -0.10315189608549888 0.70517453740766911 2.7401392805468423 78 114 63 0.048713995602748056 17 948 74 1098 35 1160
1831 -0.43556300948380583 0.75362609750211285 2.6281826296721178 66 101 52 0.13753176636003697 55 833 74 1100 34 1110 13 881 84 889 77 566
1832 -1.2426818743141166 0.77233053007172758 2.6182529988248078 167 153 83 0.22328796055516786 96 1097 74 1104 34 1175 35 480 76 1861 52 1746 13 771 59 1226 37 1220 83 1858 87 1191 65 1860 60 1160 33 1358 9 916 19 653 93 869 99 485 53 401
1834 -0.4472110107229002 0.79425182537390393 2.6228718586404098 173 155 97 0.14117154651123523 17 975 74 1113 96 1079 34 464 35 458 59 463
1835 -0.88022904360913923 0.81900515441582178 2.57142969852505 244 222 128 0.089675198806273004 96 1100 74 1115
1836 -1.2935460508216612 0.8624865212472167 2.6151634482577548 107 185 84 0.28574227756953907 17 1000 52 1748 74 1130 34 1201 35 1244 61 1623 83 1883 33 1359
1837 -1.0171959564409629 0.8805926598406556 2.5687133018589021 112 158 79 0.12825884800791168 17 1004 74 1134 34 1192 35 1233
1838 -0.14161639482247732 0.82788471882440451 2.7094809448109993 57 114 58 0.32042103122546406 17 1409 74 1136 34 1130 8 984 35 1204 61 902 13 959 98 1178 30 761
1839 -1.0751883036776562 0.24228155774036647 5.5192987731572201 69 111 60 3.3720295404939837 55 754 74 1153
1841 -0.38125502983128351 0.9369482046029024 2.6256390399446747 193 182 110 0.2420443484277347 96 532 74 1165 76 475 61 344 37 467 100 481 63 414 84 380 77 231
1842 -0.40687679078897571 1.0055743803087984 2.6164416483585113 195 188 117 0.13294596414741949 96 1138 74 1192 59 1189 17 1047 100 1151 43 394 77 553
1843 -1.1367919461650033 1.0299149138306667 2.5964878099306148 154 196 103 0.05114392244862212 17 1061 74 1193
1844 -1.1455799470504271 1.0455651745473054 2.5969271023564477 121 187 92 0.048841338946151863 17 1066 74 1197
1845 -0.7697028913017796 1.0668366226053692 2.5671847557825895 72 122 63 0.11436761177694721 96 1175 74 1202 34 1237 35 1282 76 1331 52 1179 59 1241 43 1197
1846 -0.47577209234957696 1.0751529975766465 2.5973910747100191 252 240 143 0.085980237273789048 8 1029 74 1208 13 954
1847 -0.50876210021039037 1.1950132440907228 2.5981829565684125 60 109 60 0.15119150581941485 8 1054 74 1233 76 1306 55 836 59 1255
1849 -0.11728250204430804 1.2131760792977337 2.5599316791499751 108 83 56 0.30264907935031782 52 939 74 1240 34 1245 76 1222 61 913 59 1690 37 1166 83 1158 87 1609 65 1646 60 1530 79 1016 26 1480 20 1405 27 318
1850 -0.36431960041621747 1.2114329820599796 2.6366970335287174 197 193 120 0.0067330262375612845 17 1122 74 1241
1852 -0.11302807754747583 1.2482564224853265 2.5809715133976305 207 192 185 0.48921644732607 17 624 74 1251 34 647 35 681 76 486 61 918 52 943 59 1211 37 1183 100 1619 83 1164 87 1097 50 193 43 975 78 303 63 1024 60 408 2 917 79 391 26 999 64 310
1853 -0.13356200235390411 1.2761049139725558 2.6081972970788483 113 88 59 0.55306197320541794 17 640 74 1258 35 1339 76 1239 59 1229 37 1198 100 1204 87 1119 50 206 43 282 65 1104 63 1430 60 1031 84 577 2 934 26 1008 20 351 27 918 81 810 75 741 46 730 39 751 70 508 11 569 47 506
1854 -0.40908083358698083 1.308280655797023 2.639022245123734 62 107 57 0.10001951937115211 96 1220 74 1266
1855 -1.0280354278039718 1.3787393920076942 2.785204249622804 127 109 92 1.9208358221336954 52 1264 74 1282 35 2065
1856 -0.27204239637716188 1.4686808101896605 2.703344801472884 55 97 51 0.30804010556784339 55 485 74 1309 62 672 76 633 13 1065 83 569 98 385 31 89 89 351
1857 -0.14436099350092127 0.1160568669018789 1.7238969207065358 59 116 63 0.14550335304223624 96 1289 74 1359 35 1430 59 1413 54 1087 19 443
1858 -0.099697431168659978 0.20548517745948369 1.7781354278869155 101 149 87 0.22414990766868564 96 1657 74 1373 34 1418 35 1450 59 1432 100 1380 60 1328
1861 0.18737786983076335 0.33198548472677086 1.8259889299523937 41 80 45 0.16258439110310605 52 780 74 1397 34 1435 35 1471 76 884 59 878 37 846 100 837 83 885 87 835 50 37 65 38 63 764 60 68
1862 0.15543138737585155 0.42538145493000989 1.9870589520259316 84 165 90 0.17893106521146279 17 823 74 1425
1863 -0.90600103437082025 0.40261902357373591 2.1500947632155603 140 166 104 0.34433565445313713 96 1355 74 1433 76 1681
1864 -0.7650639233613582 0.15846870195275697 2.7674917467861491 46 87 41 0.5711854468546631 17 1608 74 1434 96 1690 35 1032 98 635
1865 -0.66684050334924827 0.24891443153877141 2.7264515399261944 60 95 42 0.12651963511080999 8 1193 74 1446 13 1132 31 1353
1867 0.012116021568488762 0.47409087259038696 2.2204518401694866 79 159 89 0.11795500118248131 17 844 96 923 74 1454 34 1484 35 1531 76 1541 59 1948 84 1157
1868 -0.048586445791490955 0.46191189174953362 2.2755836627077022 141 156 105 0.11869016013617856 96 924 74 1457 34 1488
1869 -0.20229738289957067 0.40824605168888439 2.5952136203230323 87 74 57 0.74138279963742493 96 929 74 1469 34 1515 35 1923 76 1586 59 1968 37 1975 100 1859 83 2015 87 1898 63 1835 60 1835 65 1047 2 1412 79 1441 26 1765 20 1705 27 1559 56 884 70 1032 47 956
1870 0.24371101003466708 0.58323392962274889 2.2642363855357428 255 255 255 1.0107948739740813 62 980 74 1480 34 1504 98 1421 31 1183 3 842
1872 -0.63024902301963448 0.53519589293130387 2.6406491104163883 69 118 54 0.27501660193449173 62 1579 74 1495 3 1436
1873 -0.77615808975293776 0.55654335415895229 2.6206364137545894 70 124 58 0.1741916519047455 96 1409 74 1497 13 1163 84 790
1876 -0.96296955754989266 0.66231081462742669 2.5969452389857448 80 133 61 0.14403690636036506 17 1371 96 1433 74 1525 35 1629 3 1163
1878 -1.2431682560836692 0.67381381468029622 2.6505982302764854 224 201 186 0.71382135526923063 96 1066 74 1528 35 1972
1879 -0.093974846138669632 0.64621321747280935 2.7540018181578598 67 115 60 0.16842860000792936 17 1365 74 1530 13 1283
1882 -1.1598465751485181 0.7627577953185698 2.6078582168898752 96 171 74 0.31972198805034707 17 1400 74 1542 34 1652 76 1843 13 1150 37 1194 87 538
1885 -0.99431922369098313 0.79264204503445479 2.575879666116343 95 147 71 0.14336835294702252 8 1310 74 1552 34 1649 35 1647 54 1281
1886 -1.0097314657752168 0.82046804290908215 2.5731116336477475 99 146 72 0.32319600948144517 17 1410 74 1562 59 1688 37 1695
1887 -0.81888546121548444 0.83329049967774271 2.5715845107787105 233 213 125 0.14478258881543218 96 1476 74 1565 34 1650 13 1207 59 1672 37 1673
1888 -0.96380308276054971 0.84970374288305661 2.5629625924684998 98 145 72 0.17255920344627487 8 1331 17 1422 62 1335 74 1566
1893 -0.24524974010775083 1.0665092986591409 2.6571825300153873 52 89 41 0.30045686284333067 17 1069 96 1522 74 1640 76 1223 13 1349 77 854 30 482 69 373
1894 -0.81869725774955293 1.1356104843204433 2.579337496880751 87 140 72 0.061874891834860279 17 1494 74 1657
1895 -0.62019521472256545 1.1483894467824687 2.5823731408470167 248 235 146 0.14803461156207837 52 1598 96 1556 74 1662 34 1726 35 1742 59 1735 37 1731 83 1770
1896 -0.44977310462246878 1.1874403935999525 2.6075548801604773 63 110 59 0.22536656955763087 17 1502 74 1665 34 1730 96 1562 13 1336 98 1093 84 1285
1897 -0.52293900639474167 1.2005932355161177 2.5947528842977174 60 108 59 0.074994997072826128 96 1568 74 1667
1898 -1.1191201375845878 0.79637807156405105 5.8971436850909056 219 212 134 1.6426308702347394 55 1189 74 1676
1899 -0.6583448434343343 1.309046404695607 2.6106544176375186 84 150 73 0.20339679998589388 8 1463 74 1680
1900 -0.86205259844159754 1.3248869272684731 2.6194791888585218 96 175 84 0.16350351253347686 17 1152 96 1238 74 1683
1903 -0.55261331479194642 1.3605165277345299 2.6235311596824999 81 147 71 0.10015906367853314 8 1471 74 1696
1906 -0.22022570025655669 0.11416124408346395 1.7713957027521412 163 161 111 0.33879154886143448 96 1650 74 1760 34 1823 13 1412 98 1329
1908 -0.2236292408473389 0.21885819515136895 1.9238489231954596 72 144 80 0.2430969631498241 17 1238 96 1665 74 1776 34 1846 35 1867
1909 -0.6811687352864978 0.10215245617081156 2.2129905606142644 255 249 241 0.70271506328877154 96 1667 74 1779 34 1857 35 1875 76 2015 59 1941 37 1505 100 1438 83 1608 31 1360 63 1256
1910 -0.55190094910094989 0.12226168106372684 2.5057673599082801 78 96 62 1.2037813495989793 96 167 74 1795 34 933 52 1066 59 1954 100 289
1911 -0.026173578435118292 0.41517297372887441 2.0889897788433647 160 171 122 0.29826516535075709 96 1695 74 1806 17 1621 34 1873 13 1186
1912 -0.65898296824954661 0.1567986761346617 2.7689230258394737 204 195 116 0.42216475749513449 17 1831 96 1688 74 1809 34 1495 13 1439
1913 -0.79132690691749408 0.27893784220329571 2.7123354473211116 171 152 83 0.18604302657707547 17 1839 96 1935 74 1823 76 2067 84 1405 39 859
1914 0.15317244163238672 0.4913925568187999 2.2275742928850479 178 191 141 0.14912226562782566 17 1634 74 1826
1915 0.19638674566701819 0.64253696018604711 2.2664024880015194 255 254 184 0.67561454094468076 96 1731 74 1843 34 1523 35 1925 76 1545 52 808 83 209
1916 -0.35381137067425289 0.54506251080409263 2.6871422116106976 125 136 77 0.24062459513369422 96 1736 74 1848 76 2049 98 1347 3 1440 44 1105 31 1349 77 1032
1917 -0.76834194007820411 0.64905843737858027 2.6022822299490538 85 124 61 0.37253617356724789 62 1587 74 1861 35 1620 13 1182 59 1635 37 1641 100 1553 83 1735 43 1639 76 1737 65 1741 31 1047 84 1160 93 826 49 980 36 904 69 592
1918 -0.78708107403323102 0.65936473228950954 2.5985065398968739 93 131 65 0.33397346671583439 8 1771 74 1864 35 1964 59 2034 37 2032 83 2095 65 2304 78 2081 98 1454 31 1282 84 1451 64 1637 44 1209 76 2302 49 977 69 709
1919 -1.3036009784729645 0.65528823113178569 2.663968690453975 0 0 0 0.70411867352045687 55 632 96 1779 74 1865 35 1971 13 1447 84 1413
1922 -1.070203148460888 0.76431129982005319 2.5912142857178244 198 203 111 0.45600187995038438 17 1885 74 1881 34 2178 59 2253 37 2267 100 2108
1923 -0.98402116782570836 0.77513947025441354 2.5754927526434552 93 145 71 0.24977016206906133 17 1697 74 1884 35 1981
1926 -0.24408345184810332 0.84181244520892085 2.6705227173186197 90 112 66 0.15366046893053656 17 1707 74 1903 77 1042
1929 -0.77131678200970633 1.1674758269310446 2.5749699073464796 79 131 68 0.1085006246796653 17 1766 74 1941 96 1848 61 1818
1930 -0.99782704110397158 1.2042235439850906 2.5996846599041961 108 187 89 0.19204169057244611 17 1770 52 1946 96 1856 74 1943 34 2046 76 2376
1931 -0.38778404241244202 1.1902638304972737 2.6249278681555905 62 110 59 0.18132707972956064 17 1769 74 1946 34 2026 37 2076
1932 -0.75117720153927847 1.2735642594117351 2.5937156959516297 185 212 116 0.21691279862611937 96 2044 74 1951 63 1697 33 1180
1933 -0.89034817478968553 1.2987600909078643 2.6083168060430952 133 190 97 0.31308808816683481 8 1681 74 1953 35 2051 13 1296
1937 0.028713701189690678 0.18335854556313677 1.6572402517709244 216 217 230 0.3539839292446203 96 1652 74 2001 34 2088 35 2085 76 2396 59 2337 37 2340
1938 -0.081954920738818132 0.16311672846604833 1.7299798073791468 84 124 75 0.4382193705612783 96 1906 74 2005 34 2093 35 2091 59 1892 100 1780 37 1882 87 1817 43 1791 65 1915 78 1732 63 1555 79 1294 20 1237 26 1299 64 1163
1939 -0.57969248709294063 0.0054982477172646899 2.1266465640801346 98 82 49 0.75202290350896495 17 1943 74 2010 34 2101 76 2248 13 1628 59 2191 37 2199 100 2059
1940 -0.26361929117089489 0.18251241848925065 1.9032115744155 161 162 116 0.23817840406152946 96 1913 74 2015 17 1590 34 2102 35 2099 76 2232 59 2184 37 2188
1941 -0.64291689199669111 0.1141160716323176 2.3889164312077842 181 179 188 1.8998080010043743 17 1242 74 2023 96 1670 34 2117 35 2118
1942 -0.58271759665475398 0.20573167234666628 2.7552528929331968 68 100 45 0.3315377149027699 17 1834 96 1926 74 2033 34 2123 76 2263 61 1952 13 1647 84 1414
1945 -0.75434896501918303 0.56456541729909016 2.6210249375040324 145 146 80 0.43170889677892371 17 1858 74 2052 34 2148 44 1219 30 1018
1946 -0.57158286558924509 0.56514354060735128 2.6415330715048113 188 168 96 0.12142445167790351 55 1642 74 2054 34 2146 98 1480 44 1216 36 1003
1947 0.21322179282934867 0.67137573776865755 2.2838393873127094 255 255 255 0.63741043582338375 96 2089 74 2055 34 2131 76 1998 59 2211 37 1957 100 1845 83 1533 65 931
1949 -1.2796496282039362 0.75604909370705209 2.6315203183524605 73 118 53 0.74084679162156031 17 1983 74 2073 35 1983 76 2473 13 1651 84 1430 77 1088 51 1061
1950 -1.2658072754026533 0.88788340821672729 2.6070412056148138 224 207 119 0.15926230180529194 17 1899 74 2089 96 1813 100 2118
1951 -0.91543702236015978 0.95256098093520269 2.5664314865901874 249 237 142 0.24768114498361188 17 1903 74 2097 35 2183 78 2221
1953 -0.54265470769554147 1.1298991452877232 2.5926236707031052 59 108 59 0.017694086191020655 17 1916 74 2120
1955 -1.0715110851022995 1.1605998201751293 2.6108868737404096 197 198 118 0.79565899448713462 17 1764 96 1849 74 2123 34 2215 35 2305 76 2379 59 2294 37 2390 100 2138 83 2462 50 2024 43 2299 65 2477 64 1855
1956 -0.37506804290590184 1.174384749445837 2.6284981053593044 66 112 60 0.17752303429159322 17 1918 96 2028 74 2128 34 2204 35 2203 59 2265
1957 -1.0793920790376577 1.2317718490837073 2.6342587788397367 87 165 85 1.3343295541237483 17 1506 96 1862 74 2131 61 1861 84 916
1958 -0.71419906347079753 1.2700966458616969 2.5902615766131558 250 233 147 0.23081056176012871 62 1867 74 2135
1961 -0.69627144413946651 1.405832543969066 2.6359693280595455 221 220 137 0.26721005111480578 17 1793 74 2153 34 2066 76 2368 61 1813 59 2310 37 2313 100 2159 87 2217 65 2117 63 1903
1962 -0.64036921077447284 0.098450446909211203 2.3230636655893901 184 186 197 0.52968170632258582 96 2071 74 2170 35 2253 100 2214
1963 -0.99496976947303317 0.46510572477643508 2.325130476186017 247 247 253 1.6989043639265982 96 1945 74 2179 59 2470
1964 -1.1049907946312307 0.53984490330356072 2.4709211647154006 255 254 255 1.1534607450418075 96 2092 74 2183 34 2151 26 1983 60 2077
1966 -0.59955498410357333 0.63120977816212143 2.6235026014505061 146 144 80 0.48188416142978452 17 1971 52 2203 74 2191 76 2435 13 1783 31 1548 33 1734 44 1298 77 1216 30 1076
1968 -0.59645430260421695 0.72523570709603069 2.6050341301767173 177 161 95 0.2955379319174945 17 1979 96 2099 74 2197 34 2276 76 2437 61 2086 13 1787 37 2248 50 2111 3 1627 31 1542 84 1727 33 1731 54 1643 44 1292 77 1215 36 1065
1969 -0.69341968061361592 0.79796472528757978 2.5802024014178286 205 197 113 0.27303467441711521 17 1989 74 2201 35 2285 84 1615 51 1189
1972 -0.085662957668135906 0.25812991963804377 1.8451028656525852 157 170 120 0.51000385605788079 96 2159 74 2246 34 2325
1974 -0.31913577313869296 0.34871743686747692 2.7320275804974923 177 174 90 1.3830819836733066 74 2260 34 2344 35 2349 76 2515 84 1722
1975 -0.25792528981340535 0.38476512099394522 2.7521628155931412 113 139 71 1.4414771724286457 96 2079 74 2261 34 2346 35 2399 76 2513 52 2176 50 2098 43 2335
1976 -0.67534748042328696 0.57828489445458331 2.6282842047502304 68 119 55 0.48751481726936652 55 1799 62 1949 74 2267 76 2523 83 2497 50 2190 43 2344 78 2296 3 1681 30 1122 51 1247
1977 -0.1130878482889924 0.61547420000888386 2.7614707666367928 124 131 77 0.54861819803307854 52 2253 74 2271 76 2421 83 2403 50 2169 43 2239
1978 -0.86535597035848877 1.1928178210517686 2.5829518141070076 171 198 107 0.81564335167129143 96 2198 74 2289 61 2173 87 2439
1979 -0.80152610178936756 1.2264497080698291 2.6044618858830488 124 168 87 1.3357038728450952 17 2081 74 2293 34 2373 35 2367 76 2552 37 2486
1981 0.22996664827961902 0.44715738427134666 2.035317540180603 133 131 140 0.77418288631601806 96 2214 74 2309 34 2392 35 2388 59 2457 37 2458 100 2323 87 2413 27 1920
1982 0.17910748712853305 0.44659083173014669 2.0659666695737644 168 205 142 0.36208293896193106 17 2091 96 2216 74 2310 34 2393 35 2389 76 2495 13 1928 59 2459
1986 -0.087184809485705797 0.51273964423398088 2.7748463077025716 146 158 87 1.7001876809232193 52 2353 74 2349 34 2429 35 2495 61 2232 50 2269 33 1851
1988 -0.79405878501021387 1.1559776262849366 2.5707825659574119 94 154 77 0.91366984760772851 17 2186 52 2443 96 2322 74 2427 35 2528 76 2722 59 2602 37 2610 100 2474 83 2684 63 2239
1989 -0.79790722198626951 1.1567255522343365 2.5867572244514876 94 154 77 0.24648385092283029 17 2187 96 2323 74 2428 35 2529
1990 -0.26608999255146243 1.2419680020728023 2.6381649170740777 68 126 62 1.241175725069694 96 2327 74 2435 13 2000 98 1763
1991 -0.26533130446761538 1.2407888886425789 2.654315967375851 68 126 62 0.54879003695077644 96 2326 74 2436 13 2001
1992 -1.0513579497971504 0.51594393853389742 2.3984546975457537 211 208 216 1.9193947295878633 96 2344 74 2448 34 2543 13 2005 59 2630
1995 -0.56285798842323553 1.1830668924419077 2.5920272882567561 232 223 142 0.22783197315904208 17 1919 52 2070 62 1863 74 2127 96 2032 55 1655 35 2204 76 2338 61 1979 13 1805 37 2281 100 2127 83 2297 50 1959 43 2127 98 1492 3 1499 31 1425 84 1658 77 1118
1996 -0.30884435393271775 1.1315540458368822 2.6393704866912322 157 148 94 0.49337674099079665 17 2012 96 2134 52 2185 8 1928 62 1927 74 2223 35 2301 76 2442 61 2073 13 1811 59 2364 37 2268 100 2239 83 2269 87 2168 50 1938 43 2101 65 2273 98 1594 3 1605 63 2009 84 1755 77 1224 30 1064 44 1269 51 1200 49 1041 69 795
1997 -0.81900519294258478 0.39431290614702252 5.8000705441281015 64 109 59 3.0207842110983361 62 215 74 605
1998 -0.29260624648528955 -0.025815716992344667 1.6496007475714325 127 116 113 0.14090713138471159 74 3 34 10 65 73 76 52
1999 -0.23671713836975866 0.012395315903566392 1.6406346578848685 154 125 100 0.29214275435952303 8 12 74 16 34 13 13 8
2000 0.077474142446810348 0.1598727677252659 1.5893931882219645 28 16 7 0.61846226134807947 74 808 34 27 35 849 13 705
2002 -0.042500715216835024 0.13597851775917133 1.597818234073362 249 246 230 0.25196734812693106 74 30 34 30 35 18 59 15 37 17
2003 -0.3193966191137646 -0.017482692744663741 1.7682944953914972 60 111 66 0.23116494114355543 74 20 34 34 76 90 83 118 43 132 65 102 78 81 79 74 54 89
2004 -0.32441356612048916 -0.0088457759286554999 1.7744390065820703 111 127 84 0.24367493669415893 74 22 34 39 35 29 76 97 37 58 65 106 78 83
2005 -0.33175024449731533 0.02796584486919633 1.7962198940525236 141 141 97 0.22552095529041308 17 41 34 52 59 64 37 73 100 59 50 202 43 141
2006 -0.40489032852652834 0.011170276135452392 1.8430720484000396 151 147 101 0.14855670391038195 74 34 34 58 87 110 37 92
2007 -0.38568134199957249 0.032930924224157394 1.8386566220905447 171 160 109 0.1698025633286234 17 52 96 65 34 63
2008 0.037399473304891649 0.22995123832886194 1.759222004689398 212 215 149 0.40893573987134407 74 79 34 73 35 72
2009 -0.072867046730406337 0.21776682135771974 1.773847833999169 67 128 71 0.040295238532737754 74 77 34 82
2010 -0.072867046730406337 0.21776682135771974 1.773847833999169 67 128 71 0.040295238532737754 74 78 34 83
2011 0.17205440581970713 0.29545826343532106 1.7453399762631718 193 194 206 0.12367545410183527 74 109 34 86 35 889
2012 -0.080741453550850287 0.22882731574131576 1.8283344846055174 68 133 72 0.11633817085516315 74 95 34 95
2013 -0.23614310338487768 0.19658156687328121 1.8944986522977285 140 163 108 0.094624626658637856 74 96 34 108
2014 0.21011837320574528 0.33175107895208977 1.8210413189284029 33 53 30 0.25170757497996987 74 145 34 110 35 902 76 874 59 876 37 841 100 835 83 53 87 77 65 29 63 80 60 63 2 46
2015 0.17418083293718095 0.32641431662307124 1.8232601273420761 172 173 130 0.055561928048658754 17 131 34 112
2016 0.23659744550288203 0.35526000029511362 1.8413577133908128 33 47 22 0.24756748299265963 74 158 34 121 35 908 76 880 37 849 59 98 100 102 83 881 87 836 65 34 63 84 60 69 2 49 26 59 20 55 27 60 75 41 46 34
2017 -0.12283842807212511 0.26251059035398983 1.8825670876301011 70 134 74 0.010201078096868571 96 144 34 123
2018 0.28856345048124571 0.4183270017318973 1.8537591672354905 151 152 162 0.08024948246622482 74 183 34 147 59 119
2019 -0.17359007722525277 0.27884788585065035 1.9556937704766355 94 150 89 0.033910285803455661 74 151 34 150
2020 -0.24590933444243815 0.24777920367335962 2.0183090172921028 72 147 83 0.20942571159177142 74 150 34 155
2021 0.23815351615142435 0.44186594628959941 1.8926673771444014 160 158 171 2.5703212364196162 62 901 34 165
2022 -0.68139470655410217 0.13332450339362076 2.2172768588894765 214 203 203 0.32155448594242469 55 106 34 169 59 260 98 93 31 425 62 45 77 107 13 47
2023 -0.69122636869713772 0.1433052861965245 2.2094020514992336 217 215 225 0.26488526085592246 8 58 34 170 13 46
2024 -0.47111549411419235 0.18823865381724625 2.2658855220600524 73 146 82 0.072987983733239795 74 169 34 181 35 189
2025 0.17417870362031582 0.44025549337402303 2.0043102054191642 93 172 96 0.058097593827243846 74 215 34 182
2026 0.204931173491743 0.43655570959681878 2.0257422336397535 83 167 97 0.61480523114877694 74 218 34 183 35 200 13 291 59 187 37 157 100 884 63 808 2 1100 27 101 81 975 75 894 46 862 39 851 70 679 11 692
2027 0.15723976765615744 0.43856923971312523 2.017111216346497 84 165 92 0.19698459815560648 74 217 34 187 84 777 89 476
2029 -0.4615634527689364 0.20752698743773804 2.4584264299014662 97 130 89 0.48923283501698361 74 193 34 213 76 291
2030 0.25755647704604523 0.52346501826012104 2.0727510312995028 237 241 252 1.6591576257994447 74 264 34 221 59 211 37 189 63 192
2031 -0.68659427977481713 0.09828179166512245 2.6626051120382401 89 74 47 0.38081312606759515 74 191 34 223 59 1019 37 997 100 1009 87 1028 63 912 26 1475 27 1310
2032 -0.68579101880010096 0.10012745945598878 2.6602288222235093 89 74 47 0.24776081923501753 74 190 34 224 35 991 59 1020 37 998 100 1008 63 911
2033 0.1973527845507389 0.48327830879916611 2.1904668813074792 142 144 160 0.13926767145755728 74 265 34 225 35 243 100 230
2034 0.26971347511043697 0.51533864239401017 2.1467828447514132 186 186 197 0.20155242404124599 74 270 34 226 59 227 37 209
2035 0.13869142444649357 0.49484801937895428 2.2304115801395832 90 178 100 0.22632949331820976 74 271 34 241 35 1018 59 258 84 846
2036 -0.47301153893387621 0.23281812065733859 2.5871890876212311 98 87 54 0.096975923383164228 74 222 96 232 34 243
2037 0.20101300986736081 0.51581381356142619 2.2195320608215869 174 169 172 0.20495889207544232 96 273 34 244 76 196 59 253 37 242 100 254 83 183 52 68 87 235 43 88 60 199 26 201 20 171
2040 -0.92925544577105279 0.36155717434939205 2.1474579849979496 102 160 82 0.23156971962235925 74 201 34 270 35 232
2041 0.18497642465412553 0.55599101120783456 2.2706687525002427 145 133 127 0.23916944287073619 96 295 34 277 35 292 37 264 100 265
2042 -0.15657655421046021 0.38815837602992309 2.5536173445412484 164 162 173 0.8467446275620788 74 282 34 279 100 1508 83 1047 87 993 63 1314 60 1488 79 982 20 934 64 863 56 878 18 844 95 907 54 232
2045 -0.10505343090887333 0.4631960365935941 2.6154408599113115 178 184 197 0.23128324011058954 74 317 34 311 35 324 37 328
2046 0.11836299163867257 0.54475363927489839 2.5173901083433616 50 58 44 0.15522926036794021 17 887 74 336 96 322 34 312
2048 -0.2404962262474733 0.39493893882783182 2.7708528272041408 84 125 60 0.25885822390520968 74 309 34 316 14 78 25 124 85 75 48 262 32 132 72 99 88 99 24 87 45 179 21 132 28 208
2049 -1.0624641334195664 0.47730407719257717 2.1617100411741377 70 53 36 0.65031795836486594 8 132 34 327 35 287 76 1724 62 125 59 1592 96 325 17 248 37 1595 100 1509 35 1551 87 1564 63 1294
2050 -0.3826884590481594 0.59213427311858013 2.6711308683594819 160 151 90 0.14360620329294288 96 371 34 380 31 379 98 279
2051 -0.49954013333125125 0.58971275415760671 2.6446484536519734 80 121 57 0.14763720325567661 74 352 34 382 35 382 84 251
2052 -0.15190696552169067 0.6449107959328958 2.7403156064304577 58 110 58 0.23882860887686283 74 400 34 387 83 368
2053 -0.37231523422878743 0.68100881880943331 2.6567263790306055 132 135 81 0.14890442741822557 17 346 34 401 76 396 61 308 52 325 31 784 84 308 49 237
2054 -0.51852614662689767 0.6982779280460043 2.6194320646119369 169 152 92 0.17617724137971474 52 415 55 297 34 421 76 432 98 221
2055 -0.22797031219954986 0.73252315305624904 2.6944402634480404 137 138 89 0.08261664171766453 52 253 34 424 3 808
2056 0.10003448141640708 0.93305172665457614 2.2252499339341152 233 227 150 0.25734984567267027 74 494 96 483 34 429 13 1344 59 379
2058 -0.13954089871466607 0.78368656244164847 2.7138605518616843 178 163 105 0.15372938983605927 74 476 34 445 35 459 31 393
2059 -0.87265950338960641 0.68669602094030124 2.5924253359844833 233 216 128 0.10699098411860121 8 288 74 391 34 449
2060 -0.62984035588123333 0.75003467279531244 2.5915763405775381 82 116 59 0.019255893873472527 74 430 34 453
2061 -0.63029889155498287 0.7485397872786429 2.5962906976266273 82 116 59 0.052781348737624634 55 245 34 454 3 263
2062 -1.1711689390430795 0.67643095795493169 2.5893887219530649 214 200 199 1.7058844044437176 74 389 34 466 37 515 60 1112 78 650
2063 -0.99433733306511829 0.7223818662241368 2.5856820948248553 218 207 121 0.28722023155268639 8 295 34 470 13 191 83 641 98 60
2064 -0.29587406340725597 0.87068656671410516 2.652007754115469 124 121 74 0.034273731621674117 96 487 34 481
2065 -0.19750882890949567 0.88567358577520927 2.6855355660692992 59 112 57 0.14715953089155598 17 447 34 489 96 494 35 507 59 469
2066 -0.19750882890949567 0.88567358577520927 2.6855355660692992 59 112 57 0.14715953089155598 17 446 96 495 34 490 35 506 59 470
2068 -0.45482718943536721 0.86186152421523254 2.61144893742448 62 104 56 0.093133780045070724 8 447 34 492 61 376 96 492 44 155 13 376
2069 -0.65790038029273334 0.8549598307323828 2.5794307661671412 82 119 63 0.05902846607837043 52 499 34 498
2070 -0.57120501001741364 0.89477074277794466 2.5825886180777133 232 215 130 0.10889664530344495 62 422 34 509
2071 -0.33239536908031042 0.94811136496187076 2.6382969193241945 57 97 48 0.11432916720205062 62 503 34 521 13 460 8 509 3 183 77 257 51 215 69 114 49 129
2072 -0.71966485998476359 0.89560906154635012 2.5707861126494453 63 106 55 0.28257328697312517 74 1145 34 523 50 1109 3 737 41 260
2073 -0.36679605934571174 0.97545901293351234 2.6223825308149804 164 158 93 0.0058960203729962876 96 557 34 533
2074 -0.58959406305332773 0.99313339582805182 2.5832649162931767 208 199 121 0.027143943844149768 52 465 34 558
2075 -0.32712754370113006 1.0418693205924698 2.6364383789545043 85 118 62 0.093338642148673975 74 606 34 571 61 329
2077 -0.2429406930793582 1.0605983533106305 2.6607256008684494 57 94 44 0.11235783411953888 8 563 34 574 37 487
2078 -1.1546997859430845 0.92785789179083722 2.5833090321508707 104 171 81 0.047353613655006323 8 389 34 579 35 544
2079 -0.482359735590288 1.0583094461450246 2.597371767800865 73 113 61 0.11195873316599401 17 543 34 593 35 598 8 534 77 169 30 73 69 73
2080 -0.78880514832478954 1.0313183542597633 2.5642711061417431 106 141 74 0.082821021443912124 96 619 34 601
2081 -0.69223582697948993 1.0656720153478751 2.5660705782604238 189 187 112 0.11663751262584976 55 239 34 616 76 619
2082 -0.15025908890830872 1.1429245961254051 2.6924820098571036 53 71 29 0.64294466453541788 74 653 34 617 59 549
2083 -0.48922126326287518 1.1037196748989557 2.5960531148133801 66 115 60 0.045910366913821651 96 640 34 618 84 422 44 67
2084 -0.48904265897076299 1.1037750748554247 2.5949535382305697 66 115 60 0.047751122555411023 96 641 34 619 31 150
2085 -1.1814666239517786 1.0174417521716781 2.6071431663515172 104 182 86 0.090351585056718545 74 579 34 629 35 610
2086 -0.89569175447969229 1.0907262383108773 2.5502411417682112 99 152 77 0.13166805869761483 74 616 34 637
2087 -0.63549895098115239 1.1440538751718703 2.580282728245471 66 114 61 0.1402276404963646 52 495 34 641 76 626 43 499 78 488 54 341 77 123 31 85
2088 -0.11268937546582587 1.2494101080221027 2.5812942462819226 206 189 178 0.34001806445848748 17 623 34 646 35 682 76 487 59 1212 37 1182 87 1098 26 1000
2089 -0.67501852170702592 1.1690442918587198 2.5817294326968554 67 117 61 0.15470144297705918 96 667 34 655
2090 -0.39984782022214627 1.2185340965386564 2.6215853564824765 73 114 62 0.0068619542172202522 55 389 34 659
2092 -0.75588901972145939 1.1788623095561181 2.576492392316954 243 224 137 0.13862981990899573 17 598 34 664 87 580
2093 -0.51452041132126758 1.2628572117866645 2.6056436648600267 243 227 146 0.052714222848764147 96 698 34 686
2094 -0.16153232491933661 1.3433895994929623 2.669146582507095 236 228 209 0.51450222285666847 74 725 34 699 35 740 59 632 100 595 60 439 79 421 26 432 20 392
2095 -0.99314980672898434 1.221602038762565 2.6005684507216853 202 202 121 0.080993759897908454 8 547 34 706
2096 -0.41363837593401798 1.3339512964601379 2.6332315747138666 62 106 55 0.13689811334005175 96 727 34 714 46 342
2097 -0.2587169300172566 1.407220043443967 2.698906306295648 64 113 61 0.1344234536272873 96 744 34 730 98 386 39 773
2098 -0.52481499727907677 1.4265938393747437 2.6499565924279644 236 227 146 0.0038260172674073264 17 680 34 752
2099 -0.28977319718053773 1.4741334726930844 2.7001039759468379 75 124 64 0.23599654175085186 74 765 34 754 59 730 84 607 2 558 89 343
2100 -0.37733037100195105 1.4984132038352698 2.6833943514791696 84 147 67 0.20549471474301736 74 773 34 760 35 794 59 752 63 1118 2 559 81 862 61 400 75 791 70 233
2101 -0.77000457856456506 1.5104974363228538 2.9109499044278802 201 188 167 0.23073789809144901 74 1311 34 774 35 1407 59 1389 37 1860
2102 -0.38110799867479672 1.6707332709165967 3.4460924060735163 210 192 180 0.30922443054356852 74 790 34 780 35 829
2104 0.02220255489680897 0.10604581296063506 1.5496811834694855 252 210 171 0.18133342243768619 74 1344 34 786 35 7 76 0
2105 -0.24185898008326537 0.012393910696218258 1.6599624547873246 199 197 206 0.2337077857016486 74 800 34 787 84 8
2106 0.021608841587148059 0.17521203734288116 1.6353738533968687 76 65 39 0.72949719128369328 74 826 34 809 35 34 76 843 59 1400 52 789 37 806 100 798 83 863 65 837 2 645 27 687
2107 -0.17928314287140101 0.085575524221412444 1.7272807884880186 143 148 103 0.18432125909175492 52 848 74 810 34 810 76 892 37 819 83 906 64 51
2108 -0.058256275785699425 0.13115872681671473 1.6966204469700112 64 106 63 0.20161990188988371 74 815 34 812 35 863 76 864 59 845 37 809 100 37
2110 -0.068783266789542746 0.14450885267681904 1.7090760737008266 55 106 61 0.20688103905670066 74 830 34 817 59 852 100 42 78 38 63 40
2111 -0.069000932334490547 0.14566224747578593 1.7079215190521366 55 106 61 0.13309821476548764 74 831 34 818 59 851 100 43
2112 -0.0093321460963821257 0.16208252980435825 1.7071257457604982 134 148 107 0.1847182888860861 74 836 34 820 59 848
2114 -0.3232104110216783 0.068816311795134005 1.8114990831303579 73 136 72 0.2320066862595894 17 722 74 821 34 828
2115 -0.32544178019777875 0.15475574386979404 1.9230376378790253 149 157 110 0.056991795688485336 74 852 34 854 35 895
2116 -0.3257417434086749 0.15272863197256237 1.927158348821286 149 157 110 0.048539301334655276 74 853 34 855
2118 -0.24863095969488194 0.23616096558699892 1.9759723344866273 74 144 80 0.26098053320770048 74 134 34 878 35 911 59 908 37 887
2119 -0.63016032057275662 0.052322111263210139 2.2085950169723447 135 112 91 0.15460995670351521 74 857 34 879 35 135
2120 -0.25075656489046116 0.24567585044133713 2.0038319058823011 71 144 81 0.22835938184057289 74 876 34 886 35 916
2121 0.21537179363427519 0.40075240470370299 1.9148327481819509 180 193 145 0.16716470195186431 96 199 34 890 76 93
2122 0.2229464331876756 0.40562235791271994 1.9273635267059939 68 126 67 0.24738754397319182 74 904 34 898 76 904 59 1458 37 1448 100 1400 83 87 87 862 2 1086 70 673 46 847 47 815
2123 0.18491940694403169 0.40697131724153335 1.9312130642911094 77 142 76 0.29817073462985128 74 906 34 901 59 903 87 867
2124 -0.43995347825703679 0.1804824072045168 2.1718047990617575 71 145 81 0.1423968790486623 74 879 34 904 35 1495
2125 -0.1195884753892606 0.33340099274454227 2.008413412332132 72 146 82 0.017654051177740791 74 895 34 910
2126 0.18824048747608449 0.43788046841107175 2.0200332745276284 190 216 156 0.22162450442117865 74 923 34 919 35 1512 59 919 37 888 87 884
2128 0.092351228395355589 0.46466339956238634 2.1008854396716821 96 181 101 0.031797228747970779 74 940 34 938
2129 -0.48201399383774246 0.22005255376953142 2.5756699040670084 179 180 192 0.16698060288547253 74 925 34 953 76 1051 84 734
2130 -0.45890309978653165 0.23298363944576275 2.583680408643342 177 177 187 0.37753555234359021 96 228 34 956 76 1047 52 350 13 151 83 349 87 998 65 391 60 1002 84 137 26 966 20 1389 27 876 75 193
2131 -0.7160641929431848 0.12003835385283194 2.7509735581109926 150 137 134 0.22042359952747356 17 136 96 210 34 960
2132 -0.621961916007164 0.17116444055244406 2.7624430564640829 62 98 44 0.41715907831104543 74 1435 34 969 76 1097
2133 0.16292370508917306 0.49843577627944791 2.3487019069285475 37 75 34 0.73419045487466073 74 973 34 972 59 981 37 956 100 972
2134 0.21029127894161026 0.55038529478290732 2.2462793219144572 183 156 128 0.66898043429100262 74 976 34 975 35 280
2136 -0.97465465289480702 0.39929707136919412 2.1518622873125168 255 255 227 0.23798107521031339 74 926 34 992 76 1169 61 1158 17 831 13 60 98 553 3 888 31 698
2137 -1.0044909398696356 0.41574152708325496 2.1508675622988718 176 133 83 0.068764875350201426 74 931 34 996
2138 0.23727707052472019 0.6088483901179319 2.3164960871755 255 255 255 0.62848112904705622 74 1023 34 997 35 1062
2139 -0.17682676933876793 0.43267173770178446 2.6486673357254169 184 189 202 0.30229796005961523 74 988 34 1005 35 1575
2140 -0.62998103051118115 0.42271880762714276 2.675756963467891 76 130 59 0.10052318321289815 74 984 34 1020 35 1079
2141 -0.2572647499372131 0.4758969756596223 2.7370797631271691 56 103 51 0.24342198367814227 74 1025 34 1021 35 355 76 1087
2142 -0.48676629161134882 0.45535839624988117 2.685958316951687 174 153 87 0.083384973865714307 96 1378 34 1022 61 1421
2143 -0.31836691105831844 0.48475617726988007 2.7085935529331922 68 122 59 0.39902960442771312 74 1019 34 1023 76 1098 83 376 65 403 78 1048
2144 -0.26100230222134274 0.493975293770197 2.7320873731756068 146 138 85 0.26492801269522082 74 1029 34 1029 35 1097 76 1090 13 859 37 390 100 402 83 366 43 1019 84 870
2145 -0.34311080116829645 0.49009764129469613 2.7019959528791904 63 127 58 0.14342790080188764 74 1024 34 1032 13 1211
2146 -0.46462758141093885 0.48016828220923624 2.6820286966763711 180 159 92 0.067077463468482271 74 1013 34 1034 13 825 84 826
2149 -1.0208759552007562 0.4313268412742598 2.6538103000304423 74 123 53 0.064123276928266221 17 858 96 983 34 1059
2150 -1.0208759552007562 0.4313268412742598 2.6538103000304423 74 123 53 0.064123276928266221 17 859 96 984 34 1060
2151 -0.32164471595922833 0.57292288649199286 2.6918813748349844 174 158 98 0.14498077005983323 74 1045 34 1068 13 863
2152 0.078079438276033697 0.8025269458652412 2.2317676229885759 168 182 93 0.053790316682670154 8 1388 34 1070 98 874
2153 -0.98224663222772224 0.47957601663717275 2.6252887609945708 177 157 88 0.037355092796813538 74 1005 34 1071
2154 -1.0032643306247881 0.51297077808464053 2.6301597540648345 182 165 92 0.08571234373565377 74 1016 34 1081 35 1120 59 1126
2155 -0.87842120366899579 0.56782622816975081 2.6140810166501045 100 135 67 0.099348063531435354 17 909 34 1089 35 381 93 601
2156 -0.39046463141029986 0.69876197338169488 2.6475493082577719 110 123 71 0.17191929379697643 96 1044 34 1098 51 617
2157 -0.64067934123832371 0.38913665502335226 3.714577867219377 53 107 49 1.9083648240231179 52 1164 34 1102
2161 -0.93757816023253138 0.69149158416303746 2.5839106148934654 89 131 64 0.037600554643207669 17 946 96 1057 34 1124
2163 -1.210662198523794 0.6584823662892898 2.5689086928640328 243 234 210 0.29259298065058365 74 366 96 1052 34 1129 35 417 76 646 61 687
2164 -0.92056329191518649 0.78393546482776044 2.5681336774469137 81 128 63 0.050841734705654257 74 1106 34 1156
2165 -0.67713901280159505 0.87276239620202756 2.5745480349225307 73 115 58 0.066044657527832909 8 951 34 1172 98 663
2166 -0.36324018947411507 0.93469865361765281 2.6292869194631452 139 143 82 0.25724738945293113 62 1010 34 1180 76 1215 39 689 46 659 30 491 49 496
2168 -1.0180267914783303 0.88036055419344872 2.5714407330789339 111 151 76 0.057778356025744632 17 1003 34 1193
2170 -1.3838598236310606 0.8521154530403181 2.7066278896992508 84 144 67 1.3722736497220323 74 1141 34 1210 35 1247
2171 -0.26213690095793835 1.0887847624748741 2.6524409724705165 58 95 47 0.097678810903405661 74 1213 34 1219 35 1286 17 1074
2173 -0.85143544026245177 1.0069238616991991 2.5609726349592759 89 134 70 0.10473709532143531 17 1053 34 1223 59 1235
2174 -1.2299064225912995 0.94526568962761481 2.6048774109335842 223 211 125 0.081596629151557451 74 1156 34 1228 64 1460
2175 -0.4390439171160318 1.109331040770811 2.606520508431633 67 112 59 0.15934655362118375 52 379 74 1218 34 1233
2176 -1.3890719199307784 0.94589946675134795 2.7868848673055964 215 210 215 0.25197055441289701 74 562 34 1247 35 1285
2177 -0.093623822799826575 1.2267229053623168 2.5559897180847635 103 90 59 0.5104034715187431 74 1243 34 1249 76 1219 83 1154 43 246 65 394 78 283 26 990 64 298 18 295
2178 -0.7358611995679728 1.1129649652844442 2.5664362401526457 64 114 61 0.1819980166269155 74 1212 34 1250 35 1301 17 1089 59 1254
2179 -0.29782908314953133 1.1914925987662677 2.6464396311119618 236 223 144 0.15588316683085601 17 1109 96 1190 34 1257 13 1016 98 803
2180 -0.50892966872247269 1.1947745330557862 2.5996820710835706 65 112 59 0.17154525329000644 74 1234 34 1262 76 1307 13 516 62 578
2181 -0.51011098430363977 1.1943602867725605 2.6010582985297801 65 112 59 0.15521973730769087 52 1085 34 1263 61 1057
2182 -0.94585161493206582 1.1551098610597168 2.5841912426108169 91 168 81 0.11840406156699819 96 1197 34 1273 59 1300
2183 -1.5159365383383967 0.93597988155098943 3.3440905712720528 191 167 138 0.58766242322369688 74 1206 34 1274 35 1335 76 1446 59 1368 37 1377 87 1348 60 1746 79 1685 26 743 20 749
2184 -0.11025800350334285 1.3024245786426449 2.6332785206499429 250 237 217 0.93014693350537925 74 1272 34 1275 35 1347 59 1237 100 1210 81 410
2185 -0.25099350860590447 1.2771044743171069 2.6859817949478852 118 131 82 0.27621570928343625 74 1262 34 1278 3 657 2 491
2186 -0.1590561973744517 1.3066072888345452 2.6470326470903069 122 93 66 0.61330080057837355 96 1210 34 1282 61 1379 59 1246 37 1222 83 1701 87 1144 65 1120 78 1041 43 309 64 904
2187 -1.1536158502241387 1.1463483779153421 2.6197816824739331 195 203 117 0.38392928256743031 52 1277 34 1284 35 1754 76 1921 50 1638
2188 -0.94482620819644703 1.2245249467482637 2.5949343523894468 106 183 88 0.025924964714443319 8 1037 34 1292
2190 -0.48903410006660547 1.3285231966987947 2.6172525490396148 255 243 156 0.12993685364096505 8 1092 34 1299 98 732
2191 -0.29094219187664705 1.3687599445095344 2.6775914252199495 191 183 132 0.29756860009840486 74 1283 34 1301 35 1365 13 1049 46 746 39 766 84 1018 77 571 89 648
2192 -0.52467510988453991 1.3417561623178926 2.6192176026963834 83 130 67 0.11881254149208957 96 1233 34 1304 59 1311
2193 -0.18703317675116726 1.4062606730074465 2.7503319155997614 51 88 41 0.28431059657417251 74 1718 34 1317 35 1805 37 1273 100 1260 59 682 2 985 63 1105
2194 -0.25133472607276225 1.5143838581276599 2.7225869342408231 225 215 133 0.40306888093367843 74 1733 34 1348 35 1821 13 1402
2195 -0.36448104756507321 1.5034154401865114 2.6818536595699656 215 214 140 0.20514816633392896 74 1310 34 1349 35 1391
2197 -0.54586064423600478 1.570506950381817 2.4280130599193228 251 247 252 1.0076893239988554 74 1734 34 1360
2198 -0.35585459912562156 1.6261576356049765 2.9230459846884576 249 241 212 0.30935885197150703 74 1331 34 1366 35 1835
2199 -0.39573136750533233 1.7193091225510766 3.484265712798281 255 255 255 0.30371287579767331 74 1747 34 1370 59 1872
2200 -0.38215405541751823 -0.046099342749778588 1.7856780170725699 75 118 71 1.2608201116805324 74 1343 34 1386 76 1481 96 27 61 1334 83 1494 50 1395
2201 -0.14202500333923382 0.065389517156884319 1.6951019151769566 76 111 67 0.3598620114959758 74 1351 34 1388 76 1463 35 851 59 840 37 808 43 1380 60 812
2202 -0.083367923086653917 0.12031754770037614 1.6278321297492637 210 212 226 1.0661916144681407 74 1353 34 1389 76 855 84 1071
